ply
format ascii 1.0
element vertex 93
property float x
property float y
property float z
property uchar diffuse_red
property uchar diffuse_green
property uchar diffuse_blue
end_header
1.01232 -0.0412618 0.0746807 0 255 0
1.68998 -0.0218447 -0.602313 0 255 0
1.60423 -0.0328348 -0.5526 0 255 0
1.54265 -0.0465637 -0.506704 0 255 0
1.47775 -0.0645878 -0.468381 0 255 0
1.77003 -0.0162824 -0.667352 0 255 0
1.85898 -0.00113369 -0.748328 0 255 0
1.93698 0.0190166 -0.838599 0 255 0
1.99877 0.0399732 -0.927866 0 255 0
2.10663 0.0360907 -1.04862 0 255 0
2.83433 0.0304316 -1.54342 0 255 0
3.40665 -0.0122738 -1.73635 0 255 0
3.4898 -0.0042085 -1.74275 0 255 0
3.57192 -7.65561e-06 -1.75043 0 255 0
3.65798 0.0111228 -1.75458 0 255 0
3.74319 0.0298276 -1.76182 255 0 255
2.05643 0.0450729 -0.998572 255 0 255
0.35888 0.404586 0.716479 0 255 0
0.439032 0.35196 0.636903 255 0 255
0.524405 0.290731 0.552136 255 0 255
-0.329955 0.257807 1.26699 0 255 0
-0.665669 -0.139739 2.02502 0 255 0
-0.684456 -0.173224 2.13266 0 255 0
-0.697157 -0.202108 2.23615 255 0 255
-0.708514 -0.223018 2.3372 255 0 255
-0.697509 -0.223498 2.43989 255 0 255
-0.641039 0.0439094 3.03031 255 0 255
-0.630563 0.101932 3.13007 255 0 255
5.20053 0.406974 -1.74638 0 255 0
5.30708 0.383296 -1.7218 0 255 0
5.41826 0.33948 -1.72536 0 255 0
5.54337 0.28966 -1.72683 0 255 0
5.66708 0.241318 -1.72947 255 0 255
6.48536 0.013737 -1.67676 255 0 255
6.59966 0.00276946 -1.66489 255 0 255
6.71341 -0.0109503 -1.65583 255 0 255
6.82337 -0.0457974 -1.66483 255 0 255
6.92865 -0.0661211 -1.6548 0 255 0
7.03018 -0.0749536 -1.64073 255 0 255
7.13256 -0.0921428 -1.63812 0 255 0
7.24962 -0.110101 -1.62902 0 255 0
7.37577 -0.141147 -1.6277 0 255 0
7.50739 -0.167589 -1.62049 255 0 255
7.6322 -0.19163 -1.61172 0 255 0
7.74681 -0.216442 -1.59267 0 255 0
7.85045 -0.252238 -1.57731 0 255 0
7.95241 -0.293548 -1.54099 0 255 0
8.06017 -0.34769 -1.51558 255 0 255
8.2555 -0.440511 -1.42946 0 255 0
8.34923 -0.481245 -1.39436 255 0 255
8.42664 -0.511504 -1.35312 0 255 0
8.49806 -0.531249 -1.31053 0 255 0
8.57579 -0.54835 -1.27968 0 255 0
8.66211 -0.555062 -1.24359 0 255 0
8.75068 -0.542309 -1.19603 255 0 255
8.98289 -0.430062 -0.996134 255 0 255
9.03876 -0.383552 -0.911731 0 255 0
8.91691 -0.477742 -1.07508 255 0 255
9.09329 -0.35274 -0.830943 0 255 0
8.83557 -0.515959 -1.14111 0 255 0
8.16433 -0.404827 -1.48484 255 0 255
9.59119 -0.123513 0.0699773 255 0 255
9.55221 -0.132028 -0.000592481 255 0 255
10.2344 0.0644648 0.681013 0 255 0
10.2991 0.112324 0.773712 255 0 255
10.3756 0.144798 0.864091 0 255 0
10.4482 0.167227 0.962581 255 0 255
10.5105 0.177823 1.07548 0 255 0
10.6538 0.110514 1.32926 0 255 0
10.7256 0.0591669 1.4824 0 255 0
10.794 0.0113566 1.64454 0 255 0
10.5794 0.154012 1.19448 255 0 255
11.1032 -0.440926 3.19054 255 0 255
11.0897 -0.430007 3.08836 255 0 255
10.8239 -0.127733 4.31058 0 255 0
10.7428 -0.0343703 4.54304 0 255 0
10.7866 -0.0804295 4.42677 0 255 0
10.7076 -8.05217e-05 4.66115 0 255 0
10.6277 0.0563955 4.88159 0 255 0
10.5824 0.075597 4.98189 255 0 255
10.5422 0.0922463 5.07923 255 0 255
10.6674 0.0347713 4.7755 255 0 255
0.70373 -0.495996 5.50565 0 255 0
0.772159 -0.500637 5.61912 255 0 255
1.85198 -0.0570189 6.47411 255 0 255
1.99602 -0.00357256 6.56241 255 0 255
2.90561 0.0464493 7.03355 255 0 255
3.30539 3.49921e-05 7.21862 0 255 0
3.23986 0.014009 7.18888 0 255 0
3.37109 -0.0178194 7.25004 255 0 255
3.43942 -0.0305353 7.27459 0 255 0
3.50446 -0.0460617 7.30256 255 0 255
3.56146 -0.0545612 7.32633 255 0 255
